ply
format ascii 1.0
comment Generated by the CGAL library
element vertex 1847
property double x
property double y
property double z
end_header
-4.16792 -24.8542 8.98662
-3.91533 -24.0803 8.43738
-2.02533 -23.9932 8.05727
-2.29533 -23.2703 7.75966
-2.02533 -22.4603 7.94981
-3.10532 -23.5403 8.00527
-3.10532 -22.7366 8.05727
-2.83533 -22.4603 8.16961
-3.64532 -23.5403 8.06945
-3.91533 -23.1263 8.05727
-4.31133 -22.7303 8.32726
-5.97486 -28.3326 8.64318
-5.80258 -26.4981 8.97749
-8.26041 -27.8611 8.70005
-7.9656 -26.2404 9.03711
-5.34454 -25.1573 9.17322
-5.26533 -24.485 8.86726
-6.38133 -25.1243 9.20787
-6.34533 -24.4744 8.86726
-5.53532 -23.8103 8.37122
-5.49782 -23.0003 8.32726
-6.34533 -23.8103 8.3878
-6.34533 -23.0003 8.3532
-7.63533 -25.1603 9.21098
-7.42533 -24.5297 8.86726
-8.73243 -25.1603 9.15199
-8.72798 -24.5412 8.80742
-7.69533 -24.0803 8.52454
-7.42533 -23.2703 8.22987
-8.50533 -23.8103 8.24689
-8.77533 -23.0003 8.12665
-4.45533 -21.2574 11.5673
-4.72533 -21.7366 10.7573
-3.64532 -21.592 11.0273
-3.91533 -21.7703 10.4873
-4.18533 -22.0253 9.13726
-2.02533 -21.5055 10.7573
-2.02533 -21.824 9.13726
-1.75533 -20.3003 11.3911
-1.75069 -18.6925 11.8036
-4.18533 -20.3003 11.8766
-3.96507 -18.5814 12.2461
-6.61533 -20.5703 11.9633
-6.16018 -18.7521 12.4009
-8.77533 -20.3003 11.9757
-8.53099 -18.3277 12.456
-8.50533 -21.781 10.7573
-7.96532 -22.2806 8.86726
-6.34533 -21.6503 11.2705
-6.07533 -22.0317 9.40726
15.1838 -13.5449 -4.54458
15.2413 -15.4371 -5.3212
14.6431 -14.5051 -2.68675
14.7252 -15.9605 -3.34093
13.0245 -18.4103 -4.36274
14.7147 -17.0603 -3.99392
14.3032 -17.8703 -4.09274
14.3752 -17.3303 -3.01274
13.9047 -18.1142 -3.28274
13.6347 -17.9123 -6.25274
15.1638 -16.7207 -6.05088
14.7147 -17.4563 -6.25274
14.9704 -16.888 -4.99845
14.5939 -17.6003 -5.17274
13.8947 -14.9568 -0.705384
13.9438 -16.5023 -1.19102
12.8745 -15.6726 1.25729
12.9486 -17.0566 0.744152
11.6325 -19.2203 -0.582741
12.8165 -18.4706 0.156305
12.5547 -18.7723 -2.47274
14.0015 -17.3303 -1.93274
13.811 -18.1403 -2.20274
13.6046 -17.8703 -1.12273
13.3647 -18.4103 -1.41563
12.6247 -18.6803 -7.06274
12.3368 -19.4903 -7.06274
12.3381 -18.9503 -5.98273
12.1128 -19.4903 -6.25274
12.8247 -20.4038 -6.79274
12.0425 -19.2203 -4.90274
11.9524 -20.0303 -5.44274
11.7447 -19.6682 -4.90274
11.7447 -20.0469 -4.90274
11.8808 -19.2203 -4.09274
11.6106 -19.7603 -4.36274
11.7397 -20.3003 -4.63274
11.4747 -19.9324 -4.09274
11.4747 -20.3299 -4.09274
12.3153 -20.8403 -4.90274
13.6169 -21.6083 -6.74937
13.7794 -22.9788 -7.43939
13.1372 -22.5694 -4.99885
13.3636 -24.0658 -5.86275
11.2047 -20.0303 -3.20258
11.4747 -21.0044 -3.28274
11.7447 -21.7919 -2.47274
10.6647 -19.9244 -1.66273
10.772 -21.6503 -1.39274
12.4687 -23.0203 -3.24691
12.7624 -24.5537 -4.14954
11.7312 -23.7528 -1.76788
11.9222 -25.3752 -2.39149
9.01961 -17.315 6.06191
9.02714 -18.8257 5.62442
7.6318 -17.7033 7.25945
7.64928 -19.3734 6.75107
7.15467 -20.5757 5.89726
6.34467 -20.9943 4.27726
8.77467 -20.1217 4.81726
7.78179 -20.5703 3.19727
11.7454 -16.2499 2.97528
11.7465 -17.6875 2.56215
10.4106 -16.7661 4.62273
10.4271 -18.2515 4.18
10.0135 -19.5252 4.04554
9.58467 -19.9483 3.46726
10.3947 -19.6634 2.92726
10.662 -19.1425 3.46555
9.04467 -20.1608 2.11726
11.5061 -19.2203 1.84726
10.3947 -19.6905 0.767265
10.3947 -22.1614 -0.312737
9.85468 -20.1689 -0.0427399
9.85468 -20.5764 -0.582741
9.76773 -20.8403 -0.852737
9.82584 -21.1103 -0.852737
9.51238 -20.8403 -0.312737
9.58467 -21.1103 -0.518738
9.58467 -21.3615 -0.312737
9.26762 -20.5703 0.497261
9.31467 -20.8403 0.0956421
9.31467 -21.2003 -0.0427399
8.98965 -21.1103 0.497261
9.31467 -21.6058 0.227264
9.71016 -22.7512 1.03079
8.65426 -21.1103 1.03726
8.77467 -22.1903 1.29466
10.9277 -24.0636 -0.43084
10.782 -25.981 -0.578968
9.7271 -24.3282 1.21412
9.62007 -25.8659 1.0382
8.33348 -24.6808 2.76228
8.22126 -26.2016 2.56509
6.87595 -25.9594 3.86974
6.92276 -24.5682 4.09444
6.69666 -23.3342 3.99009
5.9301 -22.1903 3.73726
8.13595 -23.0038 2.65297
7.9341 -21.9203 1.84726
7.84908 -21.1103 2.11726
7.2617 -22.1903 2.65726
7.15467 -21.3803 2.76279
-4.45533 -26.8617 -11.3827
-2.83533 -27.1122 -10.3027
-1.75533 -27.4603 -8.68274
-0.405327 -27.0503 -10.4834
0.404671 -28.2998 -4.63274
1.48467 -27.994 -5.98273
-0.945328 -27.8358 -6.79274
0.674675 -27.7445 -7.33274
0.944672 -27.3946 -8.95274
2.02467 -27.5903 -7.97694
2.83467 -27.1135 -9.76274
2.02467 -28.5612 -3.01274
3.10468 -28.4251 -3.28274
3.64468 -28.968 -1.12273
4.72467 -28.6049 -2.47274
2.83467 -28.1863 -4.90274
3.64468 -27.9142 -6.25274
6.07468 -28.4003 -4.28284
4.99467 -28.0677 -4.90274
5.26467 -27.5777 -7.33274
6.61467 -27.9247 -5.71274
6.34467 -27.5903 -6.55367
4.45467 -27.3483 -8.41274
5.53468 -27.0176 -9.49274
7.69467 -28.0123 -6.52274
7.96468 -27.5072 -7.87274
7.42467 -26.781 -9.49274
9.04467 -27.489 -9.22274
6.46859 -30.5449 2.72991
5.80467 -31.0268 1.84726
7.15467 -30.453 1.03726
5.26467 -30.7123 0.497261
4.59486 -30.0203 -0.312737
7.06304 -29.1499 3.07607
6.98844 -27.5288 3.46585
8.3166 -29.5442 1.57537
8.82313 -27.748 1.61188
5.80467 -29.4803 -1.75618
6.07468 -30.2903 -0.699982
6.70081 -30.2903 -0.312737
6.61467 -30.2848 -1.12273
6.88467 -30.4201 -0.852737
6.88467 -30.3708 -1.66273
7.69467 -30.4915 -0.582741
6.88467 -29.3509 -3.28274
8.23467 -30.2449 -2.74274
10.8063 -27.902 -0.961407
9.98944 -27.8655 0.194801
8.85026 -30.2903 -0.312737
9.58755 -29.6253 0.00780604
9.58467 -30.2574 -1.93274
10.4641 -29.5831 -1.33949
7.96468 -28.869 -5.17274
9.04467 -29.8388 -4.36274
9.31467 -28.8577 -6.79274
10.6647 -29.4803 -5.73978
12.3553 -27.1571 -3.61246
11.6283 -27.6013 -2.26239
10.6647 -29.854 -3.55273
11.4323 -29.2306 -2.85375
12.2716 -28.7264 -4.16382
11.94 -29.2103 -4.90274
13.7368 -24.9384 -7.43595
13.796 -26.8004 -8.00428
13.0897 -26.2326 -5.29162
13.1441 -27.9077 -5.94916
9.83135 -28.4003 -8.41274
10.9347 -29.0155 -7.60274
10.9347 -28.546 -9.22274
12.3283 -28.9403 -7.06274
12.5547 -28.6271 -8.68274
13.442 -28.1303 -8.68274
15.1524 7.65593 0.168427
15.1451 6.35411 -0.129031
14.5833 7.27691 2.34978
14.5803 5.72651 1.97938
15.1196 4.87836 -0.37068
15.1457 3.35692 -0.86897
14.5659 4.31441 1.6909
14.5023 2.89838 1.56003
13.8298 6.7484 4.33607
13.8319 5.42906 4.00634
12.8619 6.25565 6.28127
12.8705 5.05385 5.96549
13.8021 4.0279 3.74258
13.7675 2.60006 3.4806
12.8831 3.68216 5.60014
12.758 2.20361 5.47728
15.0826 1.9171 -0.888762
15.1298 0.522072 -1.41224
14.4882 1.53947 1.2892
14.469 0.145639 1.02788
15.1381 -0.707429 -1.71682
15.0651 -2.15857 -1.69654
14.4744 -1.25268 0.691137
14.4637 -2.57441 0.428831
13.7488 1.23782 3.20598
13.686 -0.132587 3.03705
12.7738 0.954612 5.15401
12.7436 -0.411119 4.89736
13.7094 -1.65206 2.63986
13.6285 -2.93976 2.53168
12.7347 -1.76906 4.60893
12.7186 -3.31948 4.28571
7.39217 0.805324 11.7108
7.4044 2.04017 11.995
8.8624 2.53029 10.7925
9.02973 1.24717 10.3162
7.34618 3.65456 12.4387
7.47216 4.92459 12.6504
8.94624 5.11881 11.3444
8.90654 3.77905 11.0537
11.6933 5.85369 8.14209
11.7712 4.65939 7.72896
10.5182 5.67641 9.70544
10.2913 4.27833 9.64036
11.6911 3.23853 7.50036
11.6602 1.89913 7.21997
10.3226 2.79127 9.24183
10.359 1.49353 8.88741
11.5631 0.460839 7.02465
11.5504 -0.832331 6.74758
10.4231 0.315215 8.52676
10.33 -1.21222 8.28597
11.5651 -2.1527 6.4234
11.5368 -3.55916 6.1399
10.3419 -2.47011 7.98101
10.1989 -3.91084 7.81775
8.95483 -2.938 9.4147
8.97344 -4.33703 9.06862
7.46132 -4.49182 10.4116
7.36267 -3.18064 10.7973
8.99428 -0.114057 10.0322
8.9364 -1.54174 9.75914
7.44262 -1.83495 11.0473
7.39069 -0.364108 11.4331
15.1734 -4.48263 -2.72073
14.9976 -3.76131 -1.75608
14.4274 -4.03257 0.209041
14.4377 -5.35837 -0.124367
15.2144 -6.01256 -3.23412
15.0588 -7.07609 -2.73224
14.6049 -7.40454 -1.10759
14.3011 -7.08544 -0.118277
13.6394 -4.24746 2.20684
13.504 -5.5645 2.20322
12.4935 -4.73746 4.35299
12.6888 -5.9966 3.71468
13.6459 -6.88546 1.58157
13.5544 -8.22416 1.48238
12.5688 -7.47589 3.58098
12.642 -8.70851 3.16924
15.1096 -8.62101 -3.26436
15.189 -9.97786 -3.87889
14.5879 -9.94551 -1.58607
14.2956 -9.48716 -0.622151
15.2556 -11.6319 -4.49628
15.0164 -11.7512 -3.46853
14.4463 -11.6524 -1.50236
14.501 -13.1431 -1.96963
13.5708 -9.5714 1.14817
13.5862 -11.1057 0.796678
12.625 -10.1217 2.88546
12.6615 -11.5012 2.52759
13.5796 -12.4386 0.543455
13.6649 -13.6708 0.110299
12.7172 -12.982 2.13586
12.6748 -14.323 1.93326
11.4312 -5.16482 5.91817
11.4307 -6.54839 5.59432
10.195 -5.32353 7.49237
10.2175 -6.90011 7.09875
11.4278 -7.98784 5.26521
11.4172 -9.31915 4.97493
10.1454 -8.26736 6.8704
10.1732 -9.72882 6.50292
8.84855 -8.61312 8.20336
8.77092 -10.1847 7.92274
7.34156 -10.4254 9.14687
7.40379 -8.8115 9.46284
8.83727 -5.60983 8.90884
8.83304 -7.15908 8.55263
7.35895 -7.34075 9.83621
7.26781 -5.84667 10.2554
11.5457 -10.6277 4.49563
11.5953 -11.9789 4.12965
10.2088 -11.0604 6.15887
10.2258 -12.4242 5.8342
11.5872 -13.3267 3.87019
11.5725 -14.9083 3.5433
10.3641 -13.9647 5.35406
10.5217 -15.3579 4.83429
8.94183 -14.4632 6.81461
8.99762 -15.8235 6.44166
7.50024 -16.1483 7.73328
7.5046 -14.84 8.03353
8.93046 -11.5463 7.45822
9.0137 -12.906 7.07112
7.52587 -13.1943 8.3727
7.46991 -11.7187 8.74767
5.84487 -16.6709 8.85968
5.7987 -15.1496 9.2399
4.08372 -16.7586 9.93253
3.99351 -15.3089 10.3097
5.81808 -13.8438 9.51507
5.77973 -12.196 9.90909
4.09315 -13.874 10.5707
4.22583 -12.2844 10.8519
2.06492 -17.081 10.8607
2.27195 -15.4475 11.1337
0.429213 -17.1545 11.4846
0.338804 -15.3884 11.9088
2.2326 -14.0457 11.4617
2.33862 -12.6486 11.7286
0.482651 -14.107 12.1435
0.488777 -12.5526 12.4901
5.73826 -10.6258 10.2902
5.80945 -9.1892 10.5689
4.06871 -10.8983 11.2537
4.09271 -9.30362 11.6043
5.77756 -7.55 10.9672
5.83912 -6.11295 11.2572
4.09723 -7.87336 11.9279
3.95495 -6.64793 12.2895
2.50011 -11.0746 12.0121
2.23015 -9.74477 12.4391
0.398372 -11.2508 12.819
0.518251 -10.0716 13.0473
2.27927 -8.15584 12.7812
1.97708 -6.87363 13.2095
0.379191 -8.49001 13.4577
0.326908 -7.15481 13.7842
-1.4354 -17.137 12.0532
-1.39619 -15.7704 12.344
-3.69292 -17.2753 12.4813
-3.59399 -15.8173 12.7826
-1.59523 -14.2138 12.741
-1.52026 -12.7134 13.0582
-3.63184 -14.493 13.0801
-3.62795 -12.9037 13.4347
-6.30499 -16.9338 12.7911
-5.87928 -15.7645 13.0226
-8.38389 -16.8651 12.7713
-8.63877 -15.5113 13.0342
-6.35928 -14.3013 13.3555
-5.64574 -13.1803 13.5741
-8.37311 -14.4629 13.2771
-8.54402 -13.1214 13.5564
-1.7528 -11.4188 13.4076
-1.80947 -10.036 13.736
-3.77565 -11.533 13.764
-3.75728 -10.1573 14.0738
-1.80716 -8.70582 14.0427
-1.58137 -7.35799 14.296
-3.8099 -8.87122 14.3754
-4.11563 -7.72164 14.678
-6.04289 -11.776 13.9107
-6.34217 -10.5719 14.1942
-8.4629 -11.8559 13.8467
-8.57983 -10.6066 14.1204
-6.29898 -9.1821 14.5091
-6.35057 -7.72288 14.8433
-8.49002 -9.30007 14.4248
-8.73227 -7.96292 14.7087
5.545 -4.87617 11.7387
5.53873 -3.52177 12.0583
3.79183 -5.18247 12.7186
3.75687 -3.93862 13.0254
5.56146 -2.27794 12.3349
5.63396 -0.907189 12.6069
3.76008 -2.4338 13.3736
3.79451 -1.16558 13.6507
1.90051 -5.47783 13.5643
1.90916 -4.11339 13.8754
-0.0983518 -5.77272 14.2422
0.0659759 -4.40945 14.5011
1.76831 -2.77219 14.2439
1.84509 -1.44381 14.5206
-0.110515 -2.81879 14.9255
-0.0159814 -1.45407 15.2172
5.56367 0.498763 12.9869
5.51368 1.94892 13.3687
3.88755 0.188257 13.9211
3.79686 1.53635 14.2924
5.73265 3.2522 13.5428
5.6177 4.56116 13.941
3.8759 2.91412 14.5844
3.76597 4.26193 14.972
1.88524 0.0870766 14.8656
1.84072 1.53237 15.2287
-0.207087 -0.0834308 15.6005
-0.100428 1.21498 15.8722
1.8207 2.78741 15.5382
1.92552 4.18327 15.832
-0.140044 2.57962 16.2096
-0.135327 3.90955 16.5275
-1.91599 -5.94741 14.6971
-2.14806 -4.55466 15.0702
-4.17741 -6.3072 15.0091
-4.02757 -4.62944 15.3801
-2.2512 -3.02419 15.4467
-1.98436 -1.65177 15.7093
-4.29144 -3.31743 15.7148
-4.51247 -1.88215 16.0663
-6.25031 -6.39277 15.1418
-6.59959 -5.0426 15.4581
-8.92991 -6.30442 15.0703
-8.81811 -4.91377 15.3968
-6.59105 -3.61252 15.7853
-6.58394 -1.90386 16.1775
-8.84933 -3.55445 15.7019
-8.76872 -2.2505 16.0061
-1.99422 -0.323131 16.0211
-2.0316 1.01606 16.3449
-4.18676 -0.373992 16.3797
-4.3133 1.00566 16.7179
-2.33821 2.50535 16.763
-2.25367 3.99396 17.1015
-4.3124 2.43213 17.0596
-4.39929 3.71172 17.3748
-6.75758 -0.557896 16.4909
-6.635 0.865825 16.8226
-8.98837 -0.609 16.3652
-8.89185 1.03168 16.7616
-6.74174 2.3196 17.1701
-6.5169 3.6433 17.4861
-9.08593 2.55676 17.103
-8.76994 3.67403 17.4019
-28.5591 9.66918 -6.23182
-28.551 8.32263 -6.45389
-28.6717 9.04539 -4.10314
-28.6588 7.52166 -4.04242
-28.5084 6.86237 -7.06197
-28.5148 5.09745 -7.36441
-28.6509 6.18934 -4.50495
-28.6456 4.75214 -4.96295
-28.5377 8.63186 -1.41997
-28.5166 7.26638 -1.59192
-28.0701 8.01978 1.24606
-28.1181 6.7161 0.713364
-28.5272 5.69207 -2.09693
-28.4986 4.40735 -2.14461
-28.1899 4.14525 -0.233064
-28.0088 5.00392 0.792725
-28.498 3.52528 -7.864
-28.5113 1.99564 -8.11788
-28.6296 2.94909 -6.23877
-28.6419 2.77803 -4.69069
-28.4865 0.215471 -8.80897
-28.6302 0.0189348 -7.18997
-28.6548 0.960224 -5.28156
-28.6555 -0.763906 -5.36352
-28.4859 2.9585 -2.36896
-28.4856 1.39993 -2.68788
-28.0788 2.62591 -0.0583282
-28.0108 1.17497 -0.0685408
-28.4846 -0.0428624 -2.97876
-28.4826 -1.38567 -3.19064
-28.0605 -0.348237 -0.593799
-28.0149 -1.76535 -0.687422
-27.4474 7.27772 3.28521
-27.4276 5.97469 3.02811
-26.4931 6.98294 5.57175
-26.5934 5.74971 5.06262
-27.3602 4.64254 2.90443
-27.3363 3.20348 2.63758
-26.4782 4.27246 4.96501
-26.4556 2.8895 4.69324
-25.3997 6.50741 7.49917
-25.3555 5.23839 7.27301
-24.0326 6.03483 9.4127
-24.1845 4.63699 8.87859
-25.4853 3.82923 6.7287
-25.4008 2.32667 6.52511
-24.1428 3.13973 8.58569
-24.2566 1.92491 8.14946
-27.4102 2.08532 2.17787
-27.3921 0.468389 1.88158
-26.5215 1.3482 4.20506
-26.6155 0.0479855 3.71804
-27.4651 -0.866706 1.39007
-27.4295 -2.29549 1.19473
-26.5805 -1.41513 3.47955
-26.57 -2.82695 3.20327
-25.4965 0.957096 6.05774
-25.5879 -0.452574 5.58803
-24.2727 0.53279 7.81501
-24.4159 -0.848651 7.30778
-25.5883 -1.84894 5.28071
-25.6174 -3.2848 4.92176
-24.3885 -2.2292 7.04126
-24.4295 -3.70231 6.65791
-28.5356 -1.67127 -8.98626
-28.5526 -3.15579 -9.31189
-28.677 -2.20159 -6.78643
-28.6918 -3.54983 -6.74351
-28.5607 -4.65848 -9.72792
-28.5884 -6.15145 -9.98123
-28.7208 -6.19565 -7.7355
-28.7087 -5.417 -6.68426
-28.6066 -3.32799 -4.66875
-28.5949 -5.05226 -4.73543
-28.5806 -6.52871 -4.731
-28.2821 -6.46585 -2.79952
-28.4859 -3.02257 -3.48184
-28.2107 -3.41245 -1.90511
-27.938 -4.22381 -0.875952
-28.0826 -5.71602 -1.7489
-28.5887 -7.90008 -10.704
-28.7209 -8.23577 -9.18337
-28.6787 -10.2662 -10.9316
-28.7483 -8.5582 -7.30757
-28.8097 -10.9595 -8.68219
-28.7772 -11.3458 -7.29513
-28.5798 -7.98308 -4.90581
-28.57 -9.36577 -4.96015
-28.1367 -8.30602 -2.4248
-28.2004 -9.90332 -2.9142
-28.6036 -10.9304 -5.35549
-28.6252 -12.4212 -5.60171
-28.2313 -11.4064 -3.24639
-28.2955 -13.2113 -3.77936
-27.4017 -3.75026 0.968904
-27.4614 -5.17087 0.503587
-26.5755 -4.35704 2.86528
-26.5775 -5.84166 2.54938
-27.4364 -6.74788 0.259698
-27.4876 -8.10432 -0.151913
-26.6367 -7.32538 2.11399
-26.6805 -8.59585 1.7577
-25.6401 -4.74896 4.56646
-25.6542 -6.15487 4.2415
-24.5536 -5.15821 6.16499
-24.4557 -6.77401 5.95204
-25.6564 -7.53427 3.94404
-25.7593 -9.09189 3.44368
-24.5537 -8.19929 5.50994
-24.7319 -9.73495 4.93313
-27.5475 -9.57172 -0.58909
-27.5872 -10.813 -0.907048
-26.76 -10.0225 1.3035
-26.7954 -11.6243 0.935913
-27.6882 -12.3466 -1.43163
-27.7725 -13.9334 -1.94884
-26.9338 -13.1097 0.390804
-27.0269 -14.4867 -0.0704023
-25.7903 -10.6583 3.07203
-25.9629 -12.055 2.50088
-24.6991 -11.3581 4.64587
-24.8718 -12.7588 4.12459
-25.9632 -13.6801 2.22055
-26.1888 -15.0062 1.56642
-25.0808 -14.0632 3.58387
-25.1097 -15.5047 3.27899
-10.9218 -17.1074 12.4131
-10.8802 -15.6895 12.707
-13.0985 -17.4026 11.84
-13.0793 -15.7589 12.1701
-10.8982 -14.6533 12.9171
-10.9128 -13.2467 13.214
-13.2452 -14.4166 12.3874
-13.2655 -13.0898 12.6598
-15.0363 -17.3198 11.1875
-15.2301 -15.8544 11.3905
-17.1548 -17.2814 10.2132
-17.0425 -15.7922 10.5499
-15.2165 -14.4544 11.6661
-15.2991 -13.1116 11.9084
-17.0551 -14.4794 10.7926
-17.1416 -12.8775 11.0687
-10.9511 -11.9283 13.4978
-10.8019 -10.858 13.766
-13.2703 -11.8579 12.9264
-13.1687 -10.7011 13.2156
-10.8981 -9.31093 14.0978
-11.1981 -8.01583 14.3329
-13.2123 -9.32031 13.5123
-12.9306 -7.922 13.915
-15.3018 -11.6069 12.2299
-15.2734 -10.2436 12.5414
-17.0024 -11.5625 11.4223
-17.2096 -10.1587 11.6135
-15.079 -8.9111 12.9201
-15.0423 -7.60167 13.232
-16.9119 -8.5194 12.136
-17.088 -7.19908 12.337
-18.8899 -17.1064 9.22695
-18.8425 -15.76 9.49942
-20.6737 -16.6315 7.99661
-20.6678 -15.301 8.24473
-18.9207 -14.1478 9.74539
-18.7428 -12.8225 10.1255
-20.6418 -13.9117 8.52337
-20.5686 -12.4053 8.87536
-23.5114 -11.848 6.09356
-23.6483 -13.1731 5.66775
-22.1592 -12.1871 7.50091
-22.1497 -13.7698 7.1977
-23.7752 -14.5393 5.26656
-23.8269 -15.9165 4.95543
-22.2 -15.1352 6.89758
-22.3457 -16.5642 6.49435
-18.9305 -11.3513 10.3071
-18.8135 -10.0211 10.6712
-20.6705 -10.9928 9.08325
-20.4988 -9.70144 9.49955
-18.6837 -8.50832 11.0863
-18.7941 -7.12637 11.3182
-20.5747 -8.17368 9.76751
-20.4171 -6.61041 10.2393
-23.2598 -5.81715 7.67017
-23.3343 -7.38625 7.24275
-21.8931 -6.28787 9.01202
-21.9081 -7.75536 8.67684
-23.4416 -8.73131 6.83023
-23.5267 -10.3014 6.39364
-22.0595 -9.12702 8.23564
-22.1321 -10.555 7.86009
-11.1864 -6.60557 14.6545
-11.0786 -5.16826 15.0049
-13.1793 -6.36948 14.1919
-13.123 -4.9735 14.527
-10.9574 -3.65082 15.374
-10.9826 -2.31149 15.6754
-13.0408 -3.48431 14.8909
-12.7386 -1.99011 15.3231
-15.1351 -6.15536 13.519
-14.8879 -4.77058 13.9371
-16.868 -5.96176 12.7353
-16.9103 -4.44599 13.0551
-14.8638 -3.30149 14.283
-14.7811 -1.82334 14.6554
-16.6828 -2.93065 13.5234
-16.6823 -1.51549 13.8513
-10.8521 -0.496609 16.1207
-11.0015 1.01072 16.4451
-12.857 -0.511889 15.631
-13.0929 0.989423 15.9104
-11.1982 2.37002 16.7253
-11.1538 4.0037 17.1268
-13.0871 2.49142 16.267
-13.0285 4.11873 16.6734
-15.001 -0.356755 14.9065
-14.8856 1.21547 15.3246
-16.7132 -0.184287 14.1449
-16.6389 1.39992 14.5563
-14.7758 2.70817 15.7199
-14.8222 4.37792 16.1001
-16.4791 2.76435 14.9605
-16.6239 4.30284 15.2535
-18.5516 -5.45964 11.8534
-18.5861 -4.20028 12.1145
-20.3138 -5.19882 10.6403
-20.1151 -3.98733 11.0688
-18.4062 -2.86136 12.5372
-18.433 -1.3134 12.8793
-20.1311 -2.26562 11.4502
-20.0274 -1.01094 11.821
-21.648 -0.454855 10.565
-21.7061 -1.93914 10.1723
-22.9074 -0.0520202 9.3644
-23.0685 -1.64119 8.82148
-23.1696 -2.987 8.40439
-23.1878 -4.24322 8.10259
-21.7759 -3.32809 9.79051
-21.7223 -4.72722 9.52573
-18.4421 0.211678 13.2287
-18.2778 1.62221 13.6661
-20.0801 0.562326 12.1485
-19.9835 1.98739 12.5575
-18.2338 3.15857 14.0577
-18.1839 4.67809 14.4545
-19.9644 3.49419 12.9296
-19.9625 5.02199 13.3009
-22.7782 5.43042 10.7988
-22.8316 4.07791 10.418
-21.464 3.70912 11.7123
-21.4896 5.28107 12.0699
-21.5269 2.35838 11.3354
-21.6171 0.894735 10.9073
-22.7833 2.63231 10.1262
-22.971 1.25145 9.59477
-10.3232 -27.5374 8.52108
-10.437 -25.9931 8.83417
-12.2327 -28.079 7.97194
-12.5351 -26.4545 8.23954
-10.3953 -24.6203 8.71721
-10.3953 -23.5403 7.91796
-12.5913 -24.6393 8.21652
-12.0153 -23.5403 7.6506
-11.7453 -23.0003 7.53587
-11.4753 -22.7303 7.67962
-12.0153 -23.0003 7.49385
-13.0953 -23.5403 7.38417
-12.5553 -23.0003 7.36121
-12.8253 -22.54 7.51727
-12.8782 -23.0003 7.24726
-13.3653 -23.0003 7.09638
-13.0953 -22.7303 7.16779
-13.6353 -22.4603 7.26699
-14.1148 -28.3594 7.30078
-14.3704 -26.73 7.56019
-15.9898 -28.5071 6.42297
-16.1973 -26.7684 6.69806
-14.3602 -25.1984 7.84139
-14.4453 -24.0803 7.29771
-15.515 -25.1608 7.36577
-15.7291 -24.356 7.01144
-16.4026 -25.0805 6.90703
-14.1753 -23.385 6.97726
-13.6353 -22.9423 6.97726
-14.1753 -22.4603 6.95701
-13.9053 -22.4603 7.12022
-14.7822 -23.2703 6.70726
-14.7153 -22.4603 6.69882
-16.0653 -23.621 6.43726
-15.5253 -23.0003 6.32616
-15.5253 -22.3257 6.43726
-16.2527 -22.1903 6.16726
-16.2597 -22.7303 5.89726
-14.9853 -20.267 10.4873
-14.9546 -18.6766 10.9443
-17.1453 -20.0303 9.52856
-17.1827 -18.7467 9.88859
-16.6053 -21.1727 8.86726
-16.0653 -21.5509 7.24726
-14.6318 -21.3803 9.67726
-14.1753 -21.8515 7.78726
-10.6653 -20.5703 11.6497
-10.695 -18.7368 12.1135
-12.8253 -20.3003 11.1854
-12.8065 -18.7059 11.6506
-12.5553 -21.5672 10.2173
-12.2853 -22.0337 8.32726
-10.6107 -21.6503 10.7573
-10.1253 -22.1903 8.67094
-17.9301 -28.2591 5.35069
-17.8511 -26.8014 5.73883
-19.591 -27.7488 4.28238
-19.4827 -26.2219 4.70746
-18.1614 -24.8527 5.91818
-19.5565 -24.6203 4.92795
-19.2066 -23.5635 4.84621
-17.4425 -24.0537 6.09111
-17.1453 -23.2703 5.73248
-16.7994 -22.7303 5.62727
-16.6732 -22.1903 5.89726
-18.2253 -22.7303 4.87646
-22.4417 -25.1881 2.08617
-22.6855 -26.4916 1.53267
-20.9969 -25.8324 3.49327
-21.2458 -27.2998 2.92113
-22.3859 -23.8002 2.36709
-22.0383 -22.6673 1.99813
-20.88 -24.1279 3.86583
-20.3853 -22.7303 3.48645
-23.8894 -17.7187 4.49823
-24.1653 -18.9503 3.84019
-23.8953 -19.676 3.46726
-23.6116 -18.9503 4.54726
-23.3553 -19.7603 4.3214
-22.3986 -18.0334 6.14184
-22.3661 -19.7603 5.62727
-21.4653 -20.477 4.54726
-20.3853 -21.2162 3.46726
-22.5453 -20.2094 3.19727
-22.0053 -20.7168 1.84726
-21.8177 -21.3803 1.57726
-21.4653 -20.7432 2.65726
-21.1953 -21.6503 2.22964
-19.1394 -20.0303 8.32726
-19.11 -18.3702 8.79317
-20.9253 -19.8841 6.97726
-20.8817 -18.2255 7.49148
-18.4953 -20.9727 7.51727
-17.4153 -21.5059 6.16726
-20.1153 -20.75 5.89726
-18.9411 -21.3803 4.81726
-22.6676 -28.0525 1.20186
-22.1222 -29.3883 1.52111
-22.0237 -30.1596 1.00755
-22.9484 -29.1989 0.577301
-22.6623 -30.0366 0.163096
-20.7907 -29.1773 2.9303
-21.2402 -30.5137 1.3406
-21.4453 -29.8382 2.08675
-20.5711 -30.3733 2.59392
-20.1685 -30.8303 1.84726
-21.4653 -30.441 -0.582741
-20.1153 -30.6441 0.227264
-19.5753 -30.0434 -1.39274
-19.0353 -29.2103 -2.13642
-17.8346 -30.2817 4.96094
-19.3183 -29.8901 3.99867
-19.0281 -30.9835 3.19538
-18.4953 -31.0998 2.11726
-17.1453 -31.3703 3.21948
-18.2253 -30.6299 0.497261
-17.4153 -29.4803 -0.743622
-16.3353 -30.6961 1.30727
-15.5253 -29.6805 0.497261
-16.3353 -31.3177 5.08727
-15.7953 -31.517 3.73726
-16.3253 -30.1573 5.88693
-14.4453 -31.7251 5.08727
-14.7108 -30.5608 6.54985
-14.7153 -31.1003 2.53592
-13.6353 -29.9668 1.57726
-13.0953 -31.4611 3.73726
-12.0153 -30.5334 2.65726
-10.3384 -31.1197 7.64857
-10.4571 -29.2764 8.10149
-12.4719 -31.3924 6.9255
-12.7999 -30.0314 7.37184
-11.7453 -31.9691 5.62727
-9.85533 -32.0683 6.16726
-10.9353 -31.1561 3.46726
-9.58533 -31.4673 4.00726
-17.9553 -28.2818 -2.74274
-16.3353 -28.4003 -1.62837
-16.6053 -27.925 -3.28274
-15.5253 -27.8128 -4.36274
-14.4453 -28.6703 -0.42173
-13.9053 -28.4003 -1.54055
-14.4453 -28.0373 -3.55273
-12.8253 -28.2482 -3.01274
-11.7453 -29.2908 1.30727
-10.1253 -29.0255 0.767265
-10.3953 -29.7664 2.11726
-8.77533 -29.0145 0.497261
-9.04533 -30.0203 2.5526
-12.8253 -28.9198 0.497261
-11.7453 -28.646 -0.852737
-10.9353 -28.4893 -2.20274
-9.31533 -28.76 -1.12273
-13.0953 -27.9083 -4.90274
-13.9053 -27.6094 -6.25274
-11.4753 -28.1028 -5.17274
-11.4753 -27.818 -6.79274
-9.31533 -28.4105 -3.01274
-8.23533 -28.3542 -3.82274
-10.6653 -28.2282 -4.09274
-9.31533 -28.1629 -5.44274
-10.3953 -27.5331 -7.87274
-8.23533 -27.8305 -6.79274
-8.50533 -27.3203 -9.13815
-7.42533 -27.0339 -10.5727
-28.7042 -12.2496 -11.5749
-28.744 -14.2493 -11.9692
-28.8559 -13.1555 -9.4667
-28.8835 -14.8659 -10.1314
-28.4371 -16.5203 -10.3027
-26.8166 -17.3303 -10.3027
-26.4196 -17.0603 -12.1927
-28.2153 -16.0504 -12.4627
-28.7572 -13.8759 -6.90936
-28.7859 -15.5864 -7.50343
-28.3757 -14.9197 -4.4811
-28.4191 -16.4673 -5.2301
-27.9453 -17.7026 -5.71274
-26.5953 -18.2171 -6.25274
-28.7898 -16.5203 -8.41274
-28.2153 -17.0474 -8.68274
-28.4853 -17.0437 -7.60274
-28.6888 -16.5987 -7.29747
-28.2153 -17.3303 -7.14489
-27.9453 -17.3361 -7.87274
-26.8653 -17.7251 -8.41274
-26.0553 -18.4561 -13.0027
-25.9781 -18.4103 -11.9227
-26.3253 -18.9834 -11.9227
-27.039 -19.7296 -12.9437
-26.0553 -18.1492 -10.8427
-26.1973 -18.9503 -11.1127
-26.0553 -18.5088 -9.76274
-26.1873 -19.2203 -9.76274
-26.9295 -20.0303 -10.5727
-27.337 -21.1484 -13.0105
-27.3819 -22.5257 -13.8822
-27.4574 -21.911 -10.9901
-27.5509 -23.7101 -11.6964
-25.9383 -18.9503 -8.41274
-26.287 -19.7603 -8.68274
-27.1045 -20.8403 -8.41274
-25.8229 -18.9503 -7.06274
-25.9093 -19.7603 -7.06274
-25.7534 -18.9503 -5.98273
-25.6477 -19.7603 -6.25274
-26.5543 -20.9681 -6.54315
-27.426 -22.7149 -9.49665
-27.1369 -22.5637 -7.36708
-27.4426 -24.868 -9.29992
-27.183 -24.5479 -7.61052
-27.8186 -15.2177 -2.36757
-27.8976 -16.7489 -3.08206
-27.031 -16.0631 -0.441982
-27.0534 -17.6831 -0.960598
-26.3253 -18.8364 -1.66273
-24.9753 -19.4344 -2.74274
-27.4877 -18.1403 -3.55273
-26.0553 -18.7046 -4.36274
-26.0528 -16.6997 1.44293
-26.0957 -18.3641 0.926902
-25.0573 -17.1158 3.01406
-25.0961 -18.7206 2.54573
-23.8953 -19.8148 1.57726
-23.3553 -20.1958 0.227264
-23.0853 -20.8317 -0.0427399
-22.8153 -20.3399 1.03726
-22.463 -21.1103 0.767265
-25.2453 -19.3253 -0.0427399
-24.1653 -19.7603 -0.517113
-23.6744 -20.3003 -0.852737
-24.7053 -19.5057 -1.12273
-24.1653 -20.041 -1.66273
-25.7853 -20.8403 -5.17396
-26.7382 -21.9568 -5.7336
-26.3384 -21.3972 -5.3329
-25.1436 -20.3003 -4.36274
-26.3261 -22.3675 -4.40796
-25.2086 -21.3803 -3.28274
-25.7466 -22.4837 -2.90675
-26.7049 -23.8016 -5.6022
-26.7736 -25.6748 -6.02213
-26.0461 -24.1017 -3.71039
-25.9565 -25.8785 -3.75429
-24.1653 -21.2564 -1.66273
-24.915 -22.3969 -1.52474
-23.0853 -21.9203 0.305389
-24.0174 -23.0028 0.154475
-25.1829 -24.2607 -1.83639
-24.9559 -26.0754 -1.72423
-24.0118 -24.3953 0.14174
-23.8838 -25.7144 0.0900286
-25.4883 -27.8185 -3.15399
-24.3961 -29.5286 -2.49828
-24.9564 -28.8557 -2.4917
-25.2391 -29.1057 -3.79702
-24.5882 -29.4861 -3.82274
-24.1378 -27.4183 -0.662215
-23.9975 -29.1619 -0.917232
-23.0853 -30.0719 -1.39274
-22.0053 -30.0515 -2.20274
-23.0853 -29.7503 -3.50372
-21.1953 -29.577 -3.28274
-20.1153 -28.9403 -3.3707
-26.7275 -27.2902 -6.27424
-26.4064 -28.4003 -6.52274
-26.2302 -27.7966 -4.90859
-24.7053 -29.2813 -5.44274
-24.7053 -28.8832 -7.06274
-22.2753 -29.1193 -5.17274
-20.6553 -28.193 -5.17274
-22.8153 -28.534 -7.06274
-21.4586 -27.5903 -7.33274
-27.3832 -26.4682 -9.10434
-27.0947 -27.366 -7.85965
-26.3253 -28.4003 -8.23014
-25.2453 -28.4003 -9.11991
-27.384 -27.1862 -10.2119
-27.0398 -27.6153 -10.5653
-26.8557 -27.8583 -9.9073
-25.7853 -27.9944 -10.8427
-23.3553 -28.0178 -9.22274
-22.0053 -27.0977 -9.49274
-24.1653 -27.8603 -10.9606
-22.8153 -26.9755 -11.3827
-27.4593 -24.3429 -14.1021
-27.3957 -25.7653 -15.0681
-26.9912 -26.4896 -15.1172
-27.4652 -26.244 -13.8637
-26.9591 -26.7921 -14.3048
-27.5135 -26.5339 -12.7352
-26.8193 -27.1747 -13.2985
-26.8722 -27.4591 -11.9239
-27.5794 -25.893 -11.5414
-25.5153 -27.5785 -12.7327
-25.5153 -27.1508 -14.6227
-23.542 -27.0503 -13.0027
-23.6253 -26.8578 -14.3527
-19.0353 -27.9558 -4.09274
-19.5753 -27.3203 -5.94563
-17.6853 -27.4578 -5.44274
-16.3353 -27.5286 -5.71274
-20.1153 -26.8543 -7.87274
-18.7653 -26.8882 -8.14274
-16.8753 -27.207 -7.33274
-17.1453 -26.8741 -8.95274
-21.276 -26.2403 -11.1127
-21.4653 -26.0211 -12.4627
-20.1153 -25.9703 -12.1931
-21.8869 -25.9703 -13.8127
-19.5753 -25.7335 -13.5427
-20.3853 -26.4436 -9.76274
-18.7653 -26.4288 -10.5727
-17.4153 -26.4495 -11.1127
-17.9553 -26.0737 -12.7327
-14.4453 -27.5131 -7.06274
-15.2553 -27.187 -8.41274
-14.7153 -27.0862 -9.76274
-13.0953 -27.2747 -8.95274
-15.5253 -26.797 -10.8427
-13.9053 -26.6302 -11.3827
-16.3353 -26.262 -12.4627
-14.7153 -26.2546 -13.0027
-11.4753 -27.0503 -9.94043
-12.2853 -26.5581 -12.1927
-10.1253 -26.7998 -11.3827
-8.23533 -26.6973 -11.9227
8.98814 -5.03256 -23.9192
8.93038 -6.41174 -24.3405
10.3222 -5.35613 -22.5424
10.4283 -6.89589 -22.8165
8.96982 -7.79353 -24.6658
9.05696 -9.31038 -24.9777
10.4792 -8.26014 -23.1177
10.4596 -9.64516 -23.5103
7.50602 -9.07778 -26.342
7.48214 -7.71101 -25.9933
5.7634 -8.73826 -27.5521
5.72025 -7.27436 -27.1866
7.47676 -6.15397 -25.5854
7.48341 -4.70479 -25.1984
5.77576 -5.77262 -26.7448
5.86445 -4.3949 -26.3178
8.75703 0.878374 -22.6516
8.85085 -0.490366 -22.9033
10.1175 0.822591 -21.2186
10.1784 -0.787713 -21.5506
9.08281 -2.01812 -23.0528
9.0253 -3.36372 -23.4491
10.3689 -2.34873 -21.7142
10.3187 -3.91244 -22.1742
7.45815 -3.12209 -24.8065
7.40356 -1.90343 -24.5377
5.73568 -2.93765 -26.0225
5.90534 -1.5482 -25.5521
7.38112 -0.392283 -24.1743
7.33239 1.19872 -23.8171
5.73392 -0.0993172 -25.3005
5.73111 1.4636 -24.9107
3.80694 -8.2277 -28.5792
3.77459 -6.76764 -28.1964
1.84851 -7.8815 -29.3922
1.94756 -6.47172 -28.9575
3.94349 -5.58209 -27.7846
3.97995 -4.04311 -27.3527
1.95889 -5.0618 -28.5684
2.24556 -3.75634 -28.0995
-0.0404416 -7.52551 -29.9567
-0.0584532 -6.20843 -29.5898
-2.34629 -7.12152 -30.3984
-2.3853 -5.84921 -30.0437
-0.127359 -4.79269 -29.2188
0.150647 -3.47267 -28.7769
-2.31919 -4.52602 -29.6612
-2.28861 -3.3815 -29.3414
3.9655 -2.62673 -26.9899
4.0263 -1.23985 -26.601
2.16339 -2.35203 -27.7646
2.12398 -1.01218 -27.4338
3.99255 0.216057 -26.2494
4.04557 1.68274 -25.8541
2.19459 0.332679 -27.0636
2.08992 1.73068 -26.756
0.295494 -2.04641 -28.3557
0.0785691 -0.889978 -28.122
-2.24265 -2.00481 -28.9664
-2.06267 -0.683041 -28.5894
0.0810058 0.432761 -27.7854
0.0535469 1.81387 -27.4451
-2.2436 0.578904 -28.3003
-1.94364 1.82668 -27.93
8.57929 6.69566 -21.3951
8.6051 5.35812 -21.6944
9.91189 6.54986 -20.0489
10.0444 5.19874 -20.226
8.68602 3.82843 -21.9914
8.7494 2.534 -22.2475
10.021 3.73999 -20.6121
10.1464 2.24486 -20.8331
7.18892 2.69672 -23.5611
7.28511 4.22153 -23.1092
5.56424 2.90802 -24.6606
5.4906 4.25973 -24.3783
7.19526 5.56809 -22.853
7.06225 6.97281 -22.6174
5.55812 5.76366 -23.97
5.42533 7.34345 -23.6753
8.45907 12.4978 -20.1325
8.44848 11.2641 -20.4331
9.70173 12.2896 -18.9121
9.89858 10.7927 -19.0465
8.49064 9.76622 -20.7474
8.50329 8.39063 -21.0621
9.89343 9.48003 -19.3637
9.84141 8.08146 -19.7573
6.94017 8.58049 -22.3295
6.99072 10.0971 -21.9333
5.42559 8.50487 -23.3974
5.29963 10.027 -23.1191
6.94163 11.4852 -21.6448
6.88353 12.7883 -21.3888
5.32945 11.535 -22.7508
5.15906 13.1598 -22.4844
4.0154 3.0057 -25.5413
3.824 4.72643 -25.225
2.1626 2.99411 -26.4131
1.88871 4.56233 -26.1398
3.63495 5.95532 -25.0256
3.6597 7.37295 -24.6715
1.85808 6.03883 -25.7962
1.81498 7.42107 -25.484
0.272256 3.31463 -27.0069
0.0673153 4.68911 -26.7335
-2.06168 3.29477 -27.589
-1.97641 4.65908 -27.2402
0.11622 6.04826 -26.3918
0.116016 7.52574 -26.0392
-2.0754 6.21171 -26.8827
-1.76815 7.78835 -26.4488
3.74441 8.6686 -24.3188
3.55186 10.3048 -24.0329
1.87327 9.04147 -25.0775
1.88011 10.3714 -24.7641
3.51897 11.8829 -23.6858
3.42592 13.4476 -23.3765
1.81533 11.9319 -24.4287
1.88073 13.4488 -24.0587
0.124593 9.1946 -25.6419
0.0769881 10.617 -25.3259
-1.85875 9.29621 -26.1151
-1.87848 10.7373 -25.7849
0.104704 12.1276 -24.9716
0.0741841 13.8341 -24.5977
-1.73427 12.3555 -25.3828
-1.61954 13.8617 -25.0221
11.1493 11.9062 -17.2227
11.1271 10.6691 -17.5448
12.35 11.3615 -15.54
12.3547 10.3164 -15.78
11.261 9.0992 -17.736
11.2839 7.68879 -18.0469
12.4378 8.74486 -16.0204
12.4339 7.45695 -16.3401
13.4128 11.0632 -13.6157
13.4316 9.69935 -13.8997
14.3575 10.5988 -11.4071
14.3301 9.20171 -11.8158
13.4952 8.39071 -14.0793
13.3948 7.00385 -14.6266
14.3417 7.7803 -12.1232
14.3506 6.45899 -12.4152
11.3007 6.37759 -18.3474
11.2902 4.95565 -18.7108
12.4356 5.91581 -16.7181
12.5277 4.69507 -16.8648
11.396 3.36768 -18.9587
11.3962 2.10072 -19.2722
12.5763 3.01557 -17.204
12.5973 1.61141 -17.5215
13.5358 5.45815 -14.7074
13.5044 4.16905 -15.1068
14.3422 5.13483 -12.7717
14.3605 3.537 -13.1325
13.489 2.7275 -15.5058
13.5028 1.35925 -15.8274
14.3046 2.21403 -13.6348
14.3007 0.711662 -14.0331
15.071 9.83822 -9.05611
14.9765 8.55896 -9.75973
15.4284 9.4021 -7.09013
15.4472 7.90276 -7.22189
15.0542 6.97092 -9.78335
14.9936 5.81609 -10.3229
15.4312 6.45871 -7.64432
15.4368 5.14136 -7.90819
15.6121 8.92579 -4.65498
15.6027 7.25067 -4.77224
15.5004 8.31401 -1.98476
15.4805 6.75599 -2.27563
15.5885 5.8381 -5.11992
15.5846 4.53279 -5.13511
15.4698 5.41873 -2.55198
15.4682 3.85294 -2.94436
15.0194 4.32115 -10.5808
14.9866 2.92756 -11.0913
15.4477 3.63528 -8.2053
15.4237 2.28979 -8.75222
15.0079 1.48614 -11.399
14.9686 0.239157 -11.9038
15.4487 0.78984 -8.98463
15.4482 -0.495607 -9.35869
15.5869 3.11745 -5.79226
15.5967 1.77452 -6.195
15.4911 2.60292 -3.45632
15.4955 1.11931 -3.80332
15.6031 0.16257 -6.52546
15.6114 -1.14461 -6.84292
15.4982 -0.330486 -4.08402
15.4998 -1.82944 -4.39487
11.3701 0.815643 -19.6288
11.4042 -0.689821 -19.9559
12.539 0.357324 -17.9371
12.5962 -1.2511 -18.2392
11.5386 -2.51379 -20.2216
11.4937 -3.95197 -20.6555
12.4974 -2.71444 -18.7791
12.5354 -4.20506 -19.0898
13.4887 -0.0841164 -16.2262
13.4984 -1.5491 -16.5739
14.2775 -0.471895 -14.4024
14.3137 -2.10544 -14.7097
13.5197 -3.1891 -16.9319
13.5321 -4.56896 -17.2459
14.3158 -3.50337 -15.0512
14.3678 -4.86204 -15.2415
11.5733 -5.45934 -20.9249
11.6575 -7.07208 -21.223
12.6205 -5.89055 -19.3652
12.589 -7.2766 -19.7783
11.6891 -8.54202 -21.5691
11.7177 -10.0815 -21.9487
12.7651 -8.86959 -19.8925
12.8299 -10.1994 -20.1569
13.5783 -5.97954 -17.4975
13.6228 -7.46361 -17.7741
14.3679 -6.31009 -15.6064
14.4364 -7.91369 -15.8257
13.6317 -8.84304 -18.1281
13.7217 -10.5596 -18.4202
14.5176 -9.37616 -16.0016
14.5156 -10.8993 -16.4587
14.8794 -2.43726 -12.9495
14.9481 -3.85491 -13.0402
14.9322 -1.19442 -12.4195
15.3101 -1.76007 -10.7109
15.5443 -2.43221 -8.93053
15.495 -3.83351 -9.97086
15.2535 -4.68394 -11.8639
15.4911 -5.48805 -10.5501
15.6192 -2.62597 -6.84331
15.6358 -4.19535 -7.36932
15.5049 -3.03881 -4.62685
15.4929 -4.49805 -4.77195
15.6524 -6.22373 -8.61887
15.6526 -6.10755 -7.32599
15.5125 -6.12796 -5.20891
15.5457 -7.73874 -5.73847
15.0073 -6.17787 -13.4043
15.0308 -7.88766 -13.7764
15.471 -6.89849 -11.1626
15.4119 -8.2984 -11.9916
15.0438 -9.56221 -14.2203
15.1505 -11.314 -14.2905
15.4486 -9.52029 -12.1568
15.522 -11.2809 -12.201
15.6724 -7.95762 -9.2006
15.7047 -9.24171 -9.03132
15.6829 -11.2216 -10.5323
15.7276 -11.2639 -9.11383
15.6156 -9.32122 -6.62688
15.6124 -11.6388 -6.82671
-4.99533 -26.4882 -13.0027
-3.37533 -26.3249 -13.5427
-1.21532 -26.6075 -12.7327
-1.75533 -26.2403 -14.5177
-1.75533 -25.8132 -15.7027
1.48467 -26.7142 -11.6527
2.83467 -26.6349 -12.1927
0.404671 -26.5103 -13.0245
2.02467 -26.0265 -14.0827
-0.138588 -25.7003 -15.7027
1.48467 -25.7003 -15.3001
0.404671 -25.1835 -17.3227
1.75467 -25.191 -17.3227
4.45467 -26.3756 -12.1927
3.91467 -25.9479 -13.8127
5.53468 -25.6863 -14.3527
6.88467 -25.4038 -14.8927
5.53468 -26.5103 -11.4155
6.88467 -26.4668 -11.1127
8.23467 -26.4111 -11.1127
7.42467 -25.8563 -13.0027
3.37467 -25.3812 -15.9727
3.10468 -24.9413 -17.5927
4.99467 -25.1182 -16.5127
6.61467 -24.9552 -16.5127
3.14614 -24.6203 -18.9427
4.45467 -24.2552 -19.4827
6.07468 -24.42 -18.4027
5.80467 -23.9451 -20.5627
9.99003 -27.5903 -10.5727
9.85468 -27.0225 -11.9227
12.0147 -28.2179 -10.5727
11.7447 -27.7398 -12.4627
14.2543 -25.9649 -12.9949
13.3647 -27.7598 -11.9227
14.0519 -27.0503 -11.9227
13.3647 -27.5022 -13.0027
14.1674 -25.4523 -10.2632
14.0965 -27.0503 -10.5727
13.9047 -27.4778 -9.76274
13.3946 -28.1303 -9.76274
13.3647 -27.9988 -10.5727
9.31467 -26.3142 -13.2727
10.6647 -27.0975 -14.0827
8.77467 -25.6247 -15.1627
10.2416 -26.5103 -15.9727
12.2847 -27.0719 -15.1627
14.1726 -25.4533 -14.3444
13.7699 -26.7803 -14.6227
13.9226 -25.1809 -16.1563
12.0147 -26.6999 -16.7827
13.0947 -26.4386 -17.0527
13.5037 -25.8954 -17.3392
13.3647 -26.5103 -16.4879
8.23467 -25.0855 -17.3227
9.85468 -26.1029 -17.8627
7.69467 -24.7565 -19.2127
9.31467 -25.7611 -19.7527
13.396 -24.6386 -18.3256
13.22 -25.6928 -18.3861
11.7447 -26.3786 -18.1327
12.7768 -24.7069 -20.0916
11.4747 -25.9338 -20.0227
7.69467 -24.8738 -20.8327
7.01336 -24.6203 -21.9127
9.58467 -25.4503 -21.9127
8.77467 -25.1396 -23.2627
10.6644 -22.4666 -23.7056
10.3538 -23.7851 -24.4491
9.98484 -24.0392 -24.8339
9.85468 -24.6203 -24.3316
10.6647 -24.6203 -23.577
10.8992 -23.9793 -23.6272
12.0108 -23.6742 -21.6495
11.1165 -25.4303 -21.6427
11.6891 -24.9953 -21.8721
11.3399 -24.626 -22.7564
10.6647 -25.1097 -22.7227
10.3947 -15.4754 -20.2927
10.2642 -16.2503 -20.2927
10.9347 -15.7103 -19.2648
10.7604 -16.5203 -19.4827
11.4747 -14.8399 -20.2927
9.14745 -15.4403 -21.9127
9.31139 -15.7103 -21.6427
9.31467 -16.2652 -22.1827
9.73045 -15.1703 -21.3727
9.58467 -15.4403 -21.2495
9.85468 -15.5266 -20.8327
9.71934 -15.9803 -21.1027
9.85468 -16.4127 -21.3727
10.1256 -14.6303 -21.9127
11.7765 -11.6841 -22.2515
10.9347 -13.7167 -22.9927
11.2307 -12.9974 -23.0958
11.4747 -13.9425 -22.1827
11.8786 -13.1426 -22.2089
12.7569 -12.0781 -20.7725
12.1182 -14.0903 -21.3727
12.442 -13.247 -21.3683
12.951 -13.5477 -20.4523
12.5547 -14.2917 -20.5627
13.7007 -12.246 -18.9298
13.738 -13.8016 -18.8694
14.5673 -12.4899 -16.7088
14.4611 -14.1613 -17.0173
12.5547 -15.9923 -16.5127
13.7671 -15.1703 -17.0527
11.4747 -15.8524 -18.4027
11.1745 -16.5203 -18.4027
12.0147 -15.8151 -17.5927
11.5167 -16.5203 -17.5927
12.5547 -15.0837 -18.6727
10.3947 -17.0603 -22.0623
10.609 -18.0945 -22.7817
11.3882 -17.3303 -20.0227
11.8407 -18.595 -20.7972
10.7616 -19.3975 -22.9328
10.6638 -20.8297 -23.4158
11.8266 -20.2008 -21.309
11.6672 -21.753 -21.9298
12.2847 -17.8789 -18.6727
12.5591 -19.123 -19.4279
13.1654 -19.7504 -17.9399
12.0147 -17.4519 -17.3227
12.7673 -18.1403 -16.5127
13.4332 -19.2203 -16.7827
12.7297 -20.9273 -19.5286
12.6522 -22.3721 -20.0109
13.477 -21.6386 -17.4585
13.3933 -23.299 -18.0661
15.1572 -12.8798 -14.6161
15.1003 -14.6626 -14.6181
15.5972 -13.0717 -12.006
15.4801 -14.692 -12.4372
13.3647 -16.8791 -12.1927
15.3988 -15.5626 -11.996
15.2547 -15.9803 -12.0424
15.3988 -15.7623 -11.4388
15.3293 -15.899 -11.6625
15.0628 -16.2503 -11.3827
14.7147 -16.4102 -11.6527
14.7147 -16.0699 -12.7327
12.9448 -16.5203 -14.3527
14.3395 -15.7103 -14.6227
15.7346 -13.3085 -9.58095
15.6075 -15.2838 -9.75345
15.5737 -13.7569 -6.90718
15.4874 -15.7783 -7.39018
13.0947 -17.9395 -8.41274
14.7147 -17.208 -7.87274
13.3647 -17.3303 -10.3068
14.9847 -16.6369 -10.0327
12.2847 -17.0603 -15.1556
12.5289 -17.8703 -14.8927
12.8247 -18.2409 -14.0827
12.5547 -17.6003 -13.5488
13.3411 -18.6803 -15.1627
13.6803 -19.4873 -15.7443
13.9717 -20.0136 -14.0702
13.3647 -18.9503 -12.8644
13.8838 -21.7316 -15.6186
13.9815 -23.5524 -15.5209
14.1521 -21.6396 -13.5404
14.2134 -23.3507 -13.5467
13.0256 -18.9503 -11.1127
14.0227 -20.0303 -11.3827
12.8247 -19.4903 -8.8197
13.8829 -20.5703 -8.95274
14.2276 -21.9629 -11.5008
14.2429 -23.8318 -11.1845
14.1021 -21.6674 -9.53369
14.1015 -23.2109 -9.35899
-6.34533 -26.2125 -14.0827
-5.26533 -25.8206 -15.7027
-4.99533 -25.5178 -17.3227
-5.80533 -25.1603 -18.1852
-3.37533 -25.6342 -16.7827
-4.72533 -24.7669 -19.4827
-3.37533 -24.465 -20.2927
-5.53532 -24.3503 -21.1594
-4.45533 -24.0903 -21.6427
-2.29533 -25.1603 -17.9999
-2.29533 -24.6203 -19.6222
-0.405327 -24.8177 -18.6727
-3.91533 -23.5521 -23.2627
-2.56533 -23.8255 -22.1827
-1.75533 -23.3599 -23.5327
-0.675331 -22.9769 -24.6127
-4.72533 -23.2703 -24.1791
-4.45533 -22.773 -25.6927
-3.91533 -22.6111 -27.0427
-2.29533 -22.7303 -25.5545
-0.675331 -24.2909 -20.8327
0.944672 -24.3398 -20.0227
0.134674 -23.7376 -22.1827
0.674675 -23.24 -23.5327
2.56467 -24.0803 -20.4786
3.80068 -23.8103 -21.1027
4.99467 -23.6918 -21.9127
2.02467 -23.3444 -22.9927
3.37467 -23.4017 -22.4527
-4.18533 -23.3248 -29.2027
-3.10532 -23.1936 -28.6627
-3.91533 -23.1034 -31.6327
-2.02533 -23.2759 -31.0927
-0.680367 -22.8607 -31.5639
-0.961311 -22.2355 -32.062
-2.25512 -22.3571 -32.279
-1.89616 -21.6596 -32.3306
-0.682342 -20.9682 -31.8679
-3.48931 -21.4556 -32.5833
-2.89373 -19.7858 -32.0701
-1.75533 -22.9779 -27.5827
-0.945328 -23.5786 -29.2027
-0.13533 -22.9607 -26.5027
0.944672 -23.6839 -27.8527
2.56593 -21.7946 -30.8
2.02467 -23.6536 -29.4727
2.54494 -23.1412 -30.3183
0.929867 -22.4367 -31.4435
0.925042 -21.1006 -31.3481
0.404671 -23.3517 -30.5527
1.75467 -23.149 -25.4227
2.56467 -23.8465 -26.7727
3.64468 -23.5231 -24.3427
4.45467 -24.2837 -25.9627
5.26467 -24.0012 -27.8527
5.86597 -23.0854 -28.7695
5.79594 -22.0942 -28.8907
3.64468 -23.7496 -28.9327
4.48943 -22.8896 -29.7144
4.37761 -21.8891 -29.8251
6.07468 -24.3161 -22.9927
5.12824 -24.0803 -24.0727
6.34467 -24.515 -25.6927
7.69467 -24.8142 -24.6127
7.15467 -24.0225 -27.0427
7.49996 -22.5967 -27.5038
9.18613 -22.4548 -25.672
9.04467 -24.4723 -25.1527
9.54224 -23.889 -25.3933
8.23467 -24.3023 -25.9627
8.8444 -23.5235 -26.2162
7.42467 -16.2503 -25.4507
7.58299 -17.5783 -26.2319
9.30061 -17.0603 -24.0727
9.00182 -18.0567 -24.9132
9.20662 -19.5124 -25.0585
9.2623 -20.865 -25.2657
7.67692 -20.83 -26.9267
7.72217 -19.402 -26.5885
6.18215 -20.7941 -28.2237
6.12761 -19.033 -27.8655
4.49413 -20.4904 -29.3639
4.46109 -18.7422 -28.9682
5.45599 -17.3939 -27.9384
6.07468 -15.9949 -26.5027
6.48763 -17.0735 -27.0378
4.19211 -16.8816 -28.6434
4.45467 -15.9803 -27.9443
4.72467 -15.4403 -26.8272
8.05837 -15.9803 -23.8027
8.01831 -15.4403 -23.2627
8.77467 -16.1475 -22.9927
9.04467 -14.3603 -23.1527
7.42467 -14.9003 -23.8671
7.33811 -15.4403 -24.0727
7.3528 -15.7103 -24.3427
6.73979 -14.6303 -24.6127
6.60007 -15.4403 -24.8827
7.96468 -13.8502 -24.6127
9.27831 -11.2729 -25.2198
9.67211 -12.7826 -24.912
9.31467 -13.4285 -24.6127
9.04927 -12.7243 -25.5306
8.50467 -13.0448 -25.6927
10.5075 -11.1882 -23.8418
10.2497 -13.5503 -23.8027
10.584 -12.6175 -23.9399
6.61467 -13.4473 -25.9627
5.85091 -15.1703 -25.4227
5.9576 -14.3603 -25.4227
4.99467 -14.8456 -25.9627
5.26467 -14.0903 -26.0256
4.08618 -14.6303 -26.5027
4.45467 -14.0903 -26.4137
3.64468 -14.5873 -26.7727
3.64468 -14.1759 -26.7727
3.91467 -13.8203 -26.9296
4.45467 -13.4099 -27.0427
5.43024 -12.7403 -27.5827
7.77631 -12.7403 -26.5027
8.11405 -12.0709 -26.4361
7.38998 -12.2713 -27.0075
7.15467 -12.7403 -26.8194
7.0089 -12.1913 -27.2735
7.35855 -11.6995 -27.0484
8.06962 -10.6602 -26.2465
5.99914 -11.6593 -28.032
6.0907 -10.0372 -27.6621
2.8235 -16.7861 -29.3506
1.21468 -15.9803 -29.7745
1.37064 -14.9003 -28.3927
2.83467 -15.2809 -28.1227
2.40239 -20.1813 -30.4513
2.80653 -18.6767 -29.8884
0.673486 -19.3241 -30.9901
1.18322 -17.6378 -30.3568
-1.20719 -18.6356 -31.4261
-0.651065 -17.2807 -30.8978
-3.18175 -17.9214 -31.6409
-2.87048 -16.7456 -31.25
-3.64532 -14.7892 -30.0127
-2.49252 -15.4403 -30.5527
-0.675331 -14.8017 -29.2027
-0.675331 -15.6466 -30.2827
1.48467 -12.2003 -29.6553
0.674675 -13.2803 -28.5669
2.56467 -13.5503 -27.718
3.37467 -12.5143 -28.6627
4.04788 -11.4153 -29.1859
3.9744 -9.82474 -28.905
1.72854 -10.8569 -30.1752
2.02043 -9.28708 -29.7144
-0.675331 -12.0853 -30.2827
-0.945328 -13.2803 -29.0427
-2.83533 -11.9303 -30.8108
-3.10532 -13.2803 -29.4596
-0.675331 -10.5803 -30.9271
-0.326058 -9.00412 -30.4823
-2.56533 -10.3103 -31.3041
-2.5409 -8.69749 -30.8923
-26.8432 -26.0691 -16.4789
-26.049 -26.5753 -16.5476
-25.9244 -25.9703 -18.4027
-24.4353 -26.7915 -16.2427
-24.4353 -26.4149 -17.8627
-23.0853 -26.2839 -17.3227
-26.4281 -22.6966 -18.4119
-26.6314 -24.5447 -18.3072
-27.0123 -22.4747 -16.1976
-27.1523 -24.2752 -16.2588
-24.1653 -26.0281 -19.4827
-23.6253 -25.6445 -21.1027
-22.2753 -25.7781 -18.6727
-21.7353 -25.5084 -20.5627
-24.9748 -22.4614 -21.7434
-25.7108 -22.8232 -20.3583
-25.5593 -24.0249 -21.0028
-25.5001 -24.7108 -21.0111
-25.2453 -25.3731 -20.5627
-25.932 -24.3285 -20.2169
-26.0163 -24.6807 -19.9784
-25.8058 -25.3269 -19.7828
-24.9709 -24.223 -22.1864
-24.4353 -24.9558 -22.1827
-22.2753 -25.2111 -22.9927
-21.1953 -24.6203 -24.4358
-20.6553 -25.0892 -21.6427
-19.5753 -24.2841 -23.2627
-23.2167 -21.8906 -24.4335
-24.1363 -22.1803 -23.1173
-23.6121 -24.6203 -23.5327
-24.1633 -23.732 -23.5961
-22.5453 -24.0803 -24.998
-23.1833 -23.3096 -24.9144
-19.5753 -24.0803 -24.917
-18.2253 -23.8619 -24.3427
-18.4953 -24.3478 -25.9627
-17.6853 -24.0803 -25.3547
-20.6553 -23.6489 -26.2327
-19.8202 -23.2428 -27.7015
-19.3053 -23.9995 -27.0427
-20.3984 -20.2045 -27.0466
-20.4 -21.8107 -27.5554
-21.9816 -21.0124 -25.6539
-21.6818 -22.6924 -26.3496
-22.3311 -25.9703 -15.7027
-20.6553 -25.3278 -15.1627
-21.1953 -25.3201 -16.7827
-20.9253 -25.1395 -18.1327
-18.7653 -25.4303 -15.3604
-17.4153 -25.2332 -16.7827
-19.8453 -24.6816 -18.6727
-18.4953 -24.928 -17.5927
-19.3053 -24.4622 -20.5627
-17.9553 -24.3503 -19.9961
-16.8753 -24.7873 -18.6727
-16.0653 -24.4881 -20.0227
-18.2253 -23.8702 -22.1827
-17.1453 -23.4155 -23.8027
-16.3353 -23.8508 -22.1827
-15.2553 -24.0803 -21.5581
-16.3353 -25.7264 -14.8927
-15.5253 -25.3382 -16.7827
-14.1753 -25.7003 -15.5518
-14.1753 -25.1856 -17.5927
-12.5553 -25.1269 -17.8627
-14.7153 -24.8198 -18.9427
-13.6353 -24.551 -20.0227
-12.8253 -26.0492 -14.3527
-11.4753 -25.5792 -16.2427
-10.3953 -26.0196 -14.6227
-8.77533 -26.2742 -13.5427
-21.1953 -13.9547 -24.0727
-22.2753 -13.1839 -24.6127
-22.6832 -12.4703 -24.8827
-22.0053 -12.4703 -25.5349
-21.7353 -13.0845 -25.1527
-19.8453 -13.8203 -25.2455
-20.6553 -12.7403 -26.3561
-20.9765 -9.6648 -25.8997
-21.0151 -11.3316 -26.3428
-22.2668 -9.7669 -24.6498
-22.4816 -11.3875 -24.8511
-23.7092 -9.90302 -23.0057
-23.6961 -11.4518 -23.4261
-24.9522 -10.2798 -21.3947
-24.9618 -11.7011 -21.7728
-23.8953 -14.2878 -21.3727
-24.6872 -12.7403 -22.4527
-24.4353 -13.5503 -22.3205
-25.3107 -13.0103 -21.6427
-24.9753 -13.8203 -21.4723
-22.5453 -14.1536 -22.7227
-23.6253 -13.5503 -23.0505
-24.0913 -12.7403 -23.2627
-23.0853 -13.3217 -23.8027
-23.3793 -12.7403 -24.0727
-20.3853 -15.4403 -23.8449
-20.4861 -14.9003 -23.8027
-21.1953 -14.9003 -23.1142
-21.1359 -15.7103 -22.9927
-21.1953 -16.3636 -24.0727
-19.8453 -15.6744 -24.6127
-19.578 -14.9003 -24.6127
-18.9591 -14.9003 -25.1527
-19.0353 -15.6411 -25.4227
-19.8453 -16.2503 -25.6134
-20.3853 -17.3254 -26.2327
-20.1117 -18.4947 -26.8017
-21.6838 -17.7135 -24.9709
-21.5778 -19.1985 -25.5367
-22.7291 -17.0603 -22.7227
-21.7353 -15.3904 -22.1827
-21.9582 -16.2503 -22.4527
-23.3553 -16.8967 -21.1027
-22.8153 -15.4403 -20.9946
-22.954 -18.1052 -23.4397
-22.9122 -19.7407 -24.0796
-24.0364 -18.6363 -22.0887
-24.0221 -20.2125 -22.5158
-25.9904 -10.382 -19.6887
-26.0864 -11.8546 -19.9184
-27.0575 -10.6945 -17.5257
-27.0577 -12.1316 -17.9376
-26.0553 -14.977 -18.1327
-27.1353 -13.8203 -18.248
-25.2453 -14.5835 -19.7527
-26.119 -13.2803 -20.2927
-27.8326 -10.9434 -15.4446
-27.9029 -12.5663 -15.6899
-28.3128 -11.1553 -13.6293
-28.3891 -12.9915 -13.8445
-26.5953 -15.5096 -16.2427
-27.6829 -13.8203 -16.7827
-27.4353 -14.6303 -17.0527
-28.0316 -14.0903 -15.7027
-27.9132 -14.9003 -15.7027
-27.098 -15.9803 -14.3527
-28.3153 -14.3603 -14.6227
-28.0793 -15.1703 -14.8927
-28.5209 -14.6303 -13.8127
-28.2153 -15.4403 -14.0338
-24.1653 -15.4403 -19.3019
-23.871 -17.0603 -19.7527
-24.9582 -15.7103 -17.8627
-24.3352 -16.5203 -18.1327
-24.3023 -16.7903 -18.1327
-24.7053 -16.5203 -17.4969
-24.6226 -17.0603 -17.5927
-24.7111 -17.6003 -18.6727
-24.9261 -18.9313 -20.6792
-25.2585 -20.8044 -20.7013
-25.6113 -18.9891 -18.9449
-25.9399 -20.5736 -18.9334
-25.2602 -16.5203 -16.2427
-25.4418 -17.8703 -16.5127
-25.7853 -16.9248 -14.3527
-25.7853 -18.1613 -14.6227
-26.2629 -19.2688 -17.1614
-26.5147 -20.8679 -17.3281
-26.6549 -19.367 -15.1566
-26.9745 -20.8186 -15.4056
-7.69533 -25.9274 -15.1627
-8.77533 -25.5294 -16.7827
-9.58533 -25.1603 -18.1591
-7.15533 -25.1326 -18.9427
-13.0953 -24.2902 -21.1027
-11.4753 -24.184 -21.6427
-11.2053 -24.8431 -19.2127
-10.3953 -24.5042 -20.5627
-8.77533 -24.7397 -20.2927
-9.04533 -24.3058 -21.6427
-7.15533 -24.2325 -21.6427
-14.4453 -23.6929 -22.9927
-13.3653 -23.559 -23.5327
-15.5253 -23.4566 -24.8827
-13.6353 -23.2031 -25.4227
-12.0153 -23.6834 -23.2627
-10.3953 -23.6252 -23.5327
-11.4753 -23.1692 -24.8827
-11.4753 -22.9002 -26.2327
-9.04533 -23.4345 -24.0727
-9.04533 -22.8754 -25.6927
-7.69533 -23.6924 -23.2627
-6.61533 -23.3031 -24.3427
-9.31533 -22.7613 -27.0427
-7.69533 -22.6748 -26.2327
-7.69533 -22.7409 -27.5827
-6.07533 -22.6366 -26.2327
-6.07533 -22.8498 -28.1227
-15.5253 -23.2218 -30.2827
-15.2553 -22.4603 -30.9901
-13.6353 -23.3921 -30.5527
-13.9053 -22.6671 -31.3627
-13.712 -20.7496 -31.5468
-14.9144 -20.5804 -30.9381
-15.2553 -23.8795 -26.7727
-15.5253 -23.8458 -28.9327
